ply
format ascii 1.0
element vertex 849
property float x
property float y
property float z
end_header
8.35114228830818 -1.1371342939815905 19.30303116747905
306.1622581925972 -208.8400476818174 5086.201106783722
8.464632137220656 -2.347299712057921 18.335834507721888
-1.8026595109875438 -0.6804204232783723 8.107274628364832
7.886812185540148 -1.383306091853871 20.04256980795736
9.091390148120825 0.4684465399753857 59.82288602504904
54.86461641150605 -53.25285679711164 1106.177499281833
8.356407470247339 -1.3883297592315824 19.310807880201775
6.427856574804171 -8.994968195997634 66.54735959126619
7.892656776456414 -1.5147469064054107 20.054289657006365
-1.6531682619860724 -0.7610651662976907 7.507113592368311
90.15371713223888 -76.88713451897048 822.8978533629488
24.4289702638739 -33.18926560330631 688.4026376223201
57.31310792263618 -80.66342798789348 539.3733418216486
-13.01001638823038 4.736414348992122 -364.54221371422426
4.257553146547083 1.5900971752536812 58.41710373901139
-49.83512452838397 29.220687188202906 -1079.4761020146036
9.11104785615216 -0.7547471284558038 25.764845608253967
7.894696917086155 -2.2408160510843786 19.85238103570516
6.616447154829556 0.09613268902945693 46.76298014776181
238.55317438846612 -130.11579392508543 2312.4243600432765
9.717823074819217 -1.8258175067109736 18.963309190786177
10.355489251547292 -1.8484377624527628 20.756709453767346
-10.279850904612912 7.058248332685775 -377.45184051176204
9.486544562322152 -2.250481975276388 20.01113122641842
258.61009170102255 -163.40167462752754 3729.166659334914
11.97058009610271 -7.0115194074314235 140.70803873561158
10.704088907275244 -2.2097651044262108 21.091637980166755
6.7074416841223075 -16.705999383916616 294.9590287187456
7.660725066879303 -1.362885178776074 19.49980764299102
10.09081338282802 -0.5437061133313379 20.580364585418618
103.87283516298402 -76.78481806050684 1049.8133594130557
3.140807296577237 -1.0219389291342889 33.071299625628555
-61.62130252536896 54.307312375723505 -1731.6372120601284
-330.85924770911015 206.92842955298906 -5836.2348985802055
203.3159291313869 -167.49845542250313 4216.410828021556
130.11880886007768 -100.79038651760894 2296.376773945735
10.196493244256352 -4.0139111781680965 36.899238414414945
53.96853941292819 -50.096570064880034 886.6926095198583
-116.10543555747267 22.4516432023182 -1225.7473737793662
10.10508868024551 -0.958151237453685 16.746010431719434
5.9014958624409815 0.6499366867507644 45.73654409859791
4.285677267388657 -6.33636674678669 51.413445513296146
61.007290804800014 -65.80066636130442 616.103953325206
-1.152514745812931 -16.20062931229681 452.59213499353956
56.749355560145396 -56.453853047265035 657.7986355844592
8.606062129668333 -7.4908403308986236 78.79016338781221
2.398642062587066 0.16800981684479485 32.21475782158633
-22.08740604324164 -4.053206732626581 -362.1822019511759
9.580789512792972 -1.6731294805419388 18.388889113893256
-26.241995068791827 -9.163681622155863 -369.246323403014
9.747597520670904 -1.730539229696283 19.906064772835663
3.101343558033533 -2.6621536038063303 31.69632755614389
8.121510366548755 -1.8958917260299648 25.365296237912464
2.682023860790869 -2.013893144246012 29.038139471754622
7.812667236219761 -1.349420950744003 19.640195610261074
8.545330880668722 -1.3090674759381171 20.445834999617503
28.48978329281149 -34.60917876714342 561.9466478953002
8.116506373968905 -18.18003777783532 321.00849812143775
9.975199539811587 -0.9668385629295901 18.781752176001802
10.303594023367468 -0.9519885146018421 17.85050224030227
9.639672397233333 -0.5660854077534242 19.892529522241617
3.3998289474276637 -1.5827988236498303 33.095228224115736
12.084868518106802 -1.8504209099159532 37.76116290358403
-287.9011001455465 87.8362640779998 -2837.218176557577
27.945549452329637 -36.634935083734035 787.3220416086754
185.5806010902276 -121.05690253908614 2612.5440083581375
10.453914456287709 -5.978235121373717 123.14780118708607
24.00190219946404 -57.536018562877715 1574.377187436147
-528.787110481296 343.78361546890847 -9469.285906182227
8.51243655915357 -2.9497960548074587 31.090445985161665
-19.01363543417953 -3.220911980780207 -339.9549316996049
1.8896450324044902 0.06369559288064194 26.21399518588096
-7.236664422784055 0.18983003977965654 -236.00543607889705
42.24477103843781 -45.582705212163724 594.8102062124522
-5.978214154563002 -1.1171004308829944 31.919461300323494
0.8501351342041005 0.3600217021151053 -33.78914107498633
2.5070979486608618 1.2578713367572463 34.181957504743785
32.486811275471965 -44.250523595060685 457.11763076127073
90.40094190401803 -78.23620074609744 809.4664607888653
-8.305061722759394 -2.1932201905767195 -232.59384318024215
1.4545398366517888 2.5862794934608724 -97.39198163757709
8.36610283417999 -15.697366133171599 88.64456029779087
-14.6357284245535 0.9640334300860525 30.011334394081047
9.191492921793929 -1.662520145266883 17.41391649298466
-91.08410956130335 49.91515427966092 -1460.3013162592085
-14.941048824015564 0.8106146594856238 30.28997097600789
-14.540971794912249 0.8800355984753961 29.904988743899615
11.794784104571377 -4.21202053904947 106.70620248474906
11.267992325827652 -4.12942872097779 104.61602225083925
6.089004640303933 -11.452436876415957 55.85047942631998
2.503372124949088 0.2981464584053704 8.271766979151092
10.895152675572158 -3.951389153249804 95.17316226643119
9.03825071113948 -2.259616499204624 29.22798207437485
0.8702949840259692 0.2949210975976776 -35.296646629259364
-130.29257531213779 83.45065507121157 -1956.0466559865465
10.725177430864642 -0.7083563137051032 69.46353778142942
2.483665784141033 0.39252430422829737 8.275454454286812
8.202528096638586 -1.2626499503840714 18.21212252343223
-160.4462035068359 92.39311272598286 -2096.944104426376
2.5652659616901223 0.4201107522521272 8.216401405746902
-127.95064003369131 90.44766406786226 -2051.695268073294
2.28195719579325 0.8131332355463959 11.278340651844902
-8.495395297238804 -1.1059057610460556 68.31389027999532
10.01652089310068 -1.8742406063123298 30.584865229726557
8.800801321332377 -5.065587066173761 83.14473629582017
-1.3209308199599057 1.2556480583770073 -26.769584247885266
-104.0415679807861 107.74999533152582 -2366.7112651324164
9.647468349457602 -4.73086414046535 87.59924071814845
8.1190320176233 -0.7942261603625647 17.788604098749726
10.452977964419615 -4.682051012088205 91.37301355265542
9.846368048071081 -3.529909942878906 18.808710500282157
8.97147015724898 -4.039227340567743 85.84032141370109
7.835780814103256 -3.8947898082952968 80.43356281663586
8.862239341467754 -2.881701214628183 30.77244616051042
9.703507588247657 -2.7897930265007167 30.263350691424208
-81.09626580220487 38.918600110868525 -1300.0817815199546
-0.7531715580693812 2.0810330878742773 -42.147929910924375
5.30648864281382 -9.805435571569223 52.09691827106458
5.575325654579906 -10.24799231911844 53.252246075083654
7.426892093450889 -2.3621099493681217 17.411787614412116
4.594524733439465 -8.840880783322016 49.19594406168469
7.607025607739103 -1.004552658070368 18.02361595996095
2.3642709214694566 1.0956580403207492 8.653774042574875
3.147961506904515 0.15068125518614597 39.720829863687435
10.68321136528747 -2.3558404186221065 31.767965603218837
2.5427413633911025 0.35907625163820706 8.238454826451232
2.542010012981151 0.3797905250920226 8.236649899731303
9.805580833758889 -4.115029734490564 27.52792165173628
9.430279141465055 -1.6425087327096106 16.76721276083924
8.532902843000413 -1.9107609164684045 17.13499433994101
11.410814742510471 -3.304321671511616 99.60198662387944
8.862497906313873 -1.8192198886101998 17.112927909577635
10.314039575926708 -0.7061280801112061 19.096302429364023
5.006178472300263 -7.1887700061223745 55.85387599413813
-57.00077297396149 44.34359261630083 -1296.0943495487575
9.565337002452567 -1.3978616406990036 13.675614517602536
17.379043667733598 -17.321351340935955 190.68459461789703
0.01737739249387008 0.20505141188755646 -14.797116321918876
-0.9053676705236494 2.533236888488393 -47.22374216402551
-50.36173590508144 -7.519220720246052 -772.2187578855852
2.497399416982045 0.15193298396617436 8.283038779165242
9.774813240820198 -2.661281922196653 32.06890350218241
2.356144726669617 1.0544397289103224 8.56494801703679
13.210959624178802 -12.662288295625329 181.4070802106141
8.706446292750744 -7.977543544830092 82.22837833446889
6.613563218429375 -12.317367526746793 79.67588763998663
6.700480476624421 -5.155740768065628 73.08774768078237
-7.350670007742655 2.0191708437804987 -9.070609763914687
9.579423295380062 -2.752364657884742 16.60913533793424
5.107106626170034 -9.220579237074984 50.87644761045378
8.714489511737963 -2.152366682519429 30.69795924800446
7.155638127546234 0.6260582725080499 45.95136291266341
3.071067763875174 0.41763239604365576 39.44769694214736
5.142978499956249 -9.909475909195374 51.89634657462502
-48.546409680901235 28.13133451634082 -1036.8667826565436
9.617576444185687 -1.4937148459459486 65.9132205810445
6.256703644830732 -4.154303828074311 71.54652451182706
-0.005306120666485888 0.2784249999276679 -15.025289339461555
2.515188793909263 0.732271937655931 8.461875055222798
2.591962312518962 0.7052831488205304 8.4094046787569
5.505926812240734 -7.445306157192811 57.8057125805736
6.795242847423232 -9.280389850119173 63.729418751487025
-27.243831157999296 21.46058597884163 -833.7530345805433
9.221002331447924 -1.8445359244908734 16.86996975051036
2.4789591275712413 0.2885149511033012 8.290422401459894
-26.903778663842083 16.275984325442952 -757.554187317721
11.012300709977623 -2.5211124111913144 31.966403186298493
6.086835122998121 -3.851189988986343 63.86650250957902
9.584612632725788 -5.392309438501643 90.2695763769264
9.785149355630653 -2.6205087608438262 31.211704805491447
9.207477086202275 -0.8589677118036122 58.65611968935256
1.4127522167511986 0.5170836503485341 -54.96756531950719
9.913161761786304 -1.8867627431327196 29.65322172025533
8.247585846190105 -4.759459991951984 84.43304254978337
-87.09346711229368 43.379510300023654 -1371.3791516811375
-15.202579836385858 0.9696412805745135 30.540779593950013
9.872544790319619 -2.4783472201084633 31.3236783279928
2.5458690885049755 0.3633342565018296 8.348271243517516
7.951287653532686 -3.028140395104877 17.185979202452156
5.179143708443372 -9.97328769226642 55.44858545711298
10.238667350272491 -2.308984403998477 30.15922390357533
-92.22845700190639 52.27414105435767 -1492.2071748841113
14.704030594870513 -14.418208282864539 161.14510583711532
2.5024767098148013 0.40498097154806717 8.440414445948859
5.093602918323048 -9.540979455175208 54.569059499206666
-99.2416589770081 63.45326618563562 -1651.1349909103628
2.461890610600202 0.8850135339454522 9.056414551698557
6.655014863929857 -6.19513551199161 66.25716456115093
8.0882730243928 -1.7734471829662424 19.29212260351203
9.577139140364908 -2.293041424924189 30.885883890075675
10.464052256154751 -3.779926641069906 91.37262939478512
9.400237513495645 -3.6089558193833797 87.25128186782756
-127.12364797778281 79.46178413471989 -1900.3757533281005
4.502181360719155 -2.5083835824699574 57.410985756219304
-0.5641966197595253 1.603989851570768 -33.304427787988246
7.400583723841907 -3.354681151182889 71.23155936654102
2.6149087777669417 0.6868346198490105 8.551965971920534
2.5392439901028774 0.7342574879603517 8.518394008627922
6.094335902825024 0.4570361808692047 40.036084925453856
5.6374577062168 -4.408244815323117 61.348305688321844
6.3911932832905345 -4.657549392130361 64.76615826069671
8.809140499817433 -1.7564605186100037 17.613495891344225
9.529232480795766 -2.8918599706466974 30.888833613280347
4.720175171760712 0.640283577952908 58.95935713976821
7.264748152962817 -6.668530320013179 68.83504094943659
10.154641415569436 -0.7112033904092848 18.834157989873958
4.754733008277625 0.44868388897651645 59.37256603293247
2.389050996993475 0.9669243085919642 8.73670971666404
10.75253604296175 -0.5034095244816372 63.045221407386855
9.702564711650274 -1.8896527042115685 17.5504862382213
9.521342041018459 -2.7225902640486837 15.673820282608144
5.977120367728641 -11.052045838297774 58.673564717675994
9.57752778561336 -2.955209056436872 16.236734588601763
6.752927282388088 -9.184366381857947 70.56397043225184
6.759158078239969 -0.40367985377002386 41.23771369108414
2.5760397739695136 0.7654050060701052 8.553312151545112
7.809490723197433 -0.9790620902465026 54.4579135877781
5.165682769155239 -3.486170199955049 59.5018336682075
-1.7118783929629322 -0.778577256604227 7.504654310698574
-35.032493538717006 24.47187617552377 -920.687784607963
3.932136147500014 -7.3908268634671215 48.33192248445187
-1.9225764092560667 -0.8029481692078865 7.432845601442414
5.7016526055681025 -7.770555818756805 53.57332010828247
-1.6502053690406633 -2.4598808685663824 22.28977944729082
7.433346484473307 -6.487042117292128 69.33147850391605
-6.277148822363934 -1.2430158748038793 49.70406750267712
41.359554015869286 -18.076967698890254 392.5782786353808
-103.18195743651015 104.1789551539647 -2302.637850072425
0.5742102527610621 -2.0309687631536923 44.713330445515865
8.13636288678152 -3.0013967391721073 73.87632357448064
10.41558562517391 -0.7481654732408999 19.31293172942279
2.321437399784302 1.052827970521558 8.810017944086884
10.209415617240644 -0.8533053900841266 16.80659305632248
2.3855997765072656 0.8631537105694798 8.855315997870273
10.222345455058804 -20.206539120172124 115.80394938266414
10.113503607230362 -0.8680842230790801 16.46402899086945
13.803246523851776 -13.490325681749201 140.1631669161728
9.215045792945135 -2.8824761340618696 17.74220042175088
-226.95266426839632 205.7442140182196 -3713.975363950932
10.545756539396653 -0.9310975418367212 16.97457626625647
8.695463432779691 -1.0840442786107658 18.847393875703222
7.728516699509462 -4.346547222582563 74.17706821245855
9.846886059593732 -2.8281304871026376 30.752020460058706
8.595129092140882 -2.457685512733459 75.28572850569232
8.938539782048187 -1.947122550838628 17.121378576493075
2.54443101796985 0.3726481603185467 8.304105111286635
2.5287706036035753 0.33886780219612944 8.3832245211204
-13.86320289365646 -0.7185661350924873 46.58892241132018
9.256128863513956 -3.6472473059854296 32.659848026527015
7.3905849867488715 -1.7211205190875662 19.39915589390703
-14.041799950673482 -1.277502682784222 46.8728553124515
-48.310658757472034 27.727114170208534 -1030.577252880596
-13.417150034564578 0.8149721428594187 27.719326838321013
8.630327302587254 -2.204230488451941 16.912120398502662
9.213511656145835 -1.9986011108709976 28.004971764777025
5.029966676863905 -5.435999418573033 53.88797591662581
10.078075036784632 -2.2541576633669966 31.43905549106065
4.378990095901125 -4.366247752249156 50.251351999898134
6.357258402755543 -6.091178255806415 59.113563313368864
9.510823212797055 -2.2545152470650662 30.63839703093874
9.053404225750535 -2.546037787728205 29.590278579118365
7.296082045645184 -1.4408028799142034 18.039844787760657
7.011654528943036 0.2400251819025156 47.71361361272433
7.834459562409862 -1.7107409148910018 18.159460034322976
-19.77206381906645 12.130044319613505 -646.1913525780639
5.2834965308935375 -5.917692389511905 55.36836324508027
-454.13457975391236 260.7057721796967 -3980.4812681994986
9.347331129809943 -2.691555381540382 16.240768539891064
-2.2115692691747304 -3.338303702588216 29.59782812005477
10.699674520937322 -2.5724002284160155 32.34746764026635
17.452544622214578 -15.138358693788415 160.50453806392807
6.161880568612253 -4.7938187813585005 69.94203317522005
2.462346562814886 0.36885875679930413 8.143177720435915
9.486618941836552 -2.46768908816291 30.563445663011095
-14.908544022699875 1.0245459545589992 30.081647704533545
2.5866536833899456 0.7119800500091241 8.448633795634867
9.49878088212594 -1.9234264532781349 27.943544432735212
6.242970243963384 -0.40715732502932084 40.68459982326356
11.140899148113927 -2.119059636779648 32.8112007461708
7.124130952029477 -3.2156190932493898 63.675687161400845
-569.293857909513 1816.3909031287744 -41228.36598744763
5.753259358184382 -2.222555773186582 52.87488109202557
-135.08118491599618 70.413468796887 -1801.6028498236808
-0.32074728612309705 0.6110835669989937 -17.22752300003273
-59.84835097485882 44.90192278982745 -1311.2231285850726
2.360090891966774 0.8529671901485109 8.77312065706709
-13.541692239996982 1.036483236930117 27.035769922098346
-92.99997546352236 94.81570179372899 -2153.7120537718283
10.797975697947168 -4.250987812091792 36.51136243213008
14.078107174584309 -0.8323207307990929 85.07831333002144
9.222144249638452 -2.1917003837919804 17.262337676866544
-11.852010196051628 -1.0778294224774365 39.60233962749684
-3.513090616663396 -1.326113792924076 132.21892863568306
-19.35250438752244 10.695766794316116 -624.109318089244
2.332587111897935 0.9855829968587054 8.749279566351863
8.2839252685907 -3.647332769275757 28.498201786449133
-2.0602199037331745 -0.9231147589816703 8.269874865869332
7.350883257454948 -0.4354112316602995 43.731772446652776
-1.0133046817505786 0.8059129661221115 -24.814835636614294
5.739279311422143 -8.064352957652018 54.98519397730519
11.243533595305975 -11.254095928108596 114.98300459120316
3371.424640018198 -3314.5089790926813 32318.928989556243
-32.483033892772816 -1.1494977145768133 109.53818213813577
2.3638160226888347 1.0894376007696152 8.670145011583148
-14.903845702989202 13.885428069874807 -629.7533179649439
2.2967526279297252 1.0449964471177957 8.758533657128007
8.251493682909068 -1.5367200657945415 18.766616109822905
9.583298207316735 -9.600506153872518 108.85737596465049
4.3838655657823695 -2.9228593895315065 52.997794120463574
-42.18579478762889 185.25291543499367 -4727.991288083015
5.361454347782331 -5.703286116542374 50.408412108569934
9.819135784968218 -3.137383322919669 34.663504180318625
10.6897886718847 -11.756313022628504 109.39642445398401
-1.7587872158160087 -0.8101824774848415 7.476950541102614
2.22324427197464 1.167746539783366 10.852892126111737
-1.9047541212807588 -0.8163246015218378 7.778829954715418
9.088971162070703 -13.347898361968811 97.99503349500498
-1.8162286584430813 -0.8711268467442227 7.45610637542578
10.090943274406781 -2.9132868039866473 31.510020841681314
2.4696332694742895 0.6734724973398045 8.121859057172763
3.593968327029033 -0.42994807813768693 42.55737794803902
9.551171778554158 -2.7806995756496367 18.39425581080787
-177.21510047130644 97.92056711897935 -2178.921330404503
2.491804034597005 0.3799824548426492 8.178676924215106
8.414099239586385 -0.7490854931746679 18.912927263356025
-14.438875331495971 0.9306702016606728 29.19244470653965
9.310914898597801 -0.9954892676811216 63.79413853824454
8.733077400050462 -2.421967803353998 17.7962712883231
4.217179128669216 -3.7812193688706937 40.492684868286105
8.527317946797272 -2.9193887767578195 22.193876815396866
10.394454297946389 -0.661640685422983 67.16786128089406
8.893691187006512 -1.5002675516256263 19.358555951044043
-16.44503216082413 13.83484192156531 -641.8150110579853
9.171063562822187 -2.82579704355728 30.66390952743465
7.423431241424844 -1.3150753783294895 17.96510269024776
10.453545207478822 -2.358961361296563 32.42993578937608
-22.297816634780464 58.437264316087116 -1612.0529254073774
14.263632736984961 -7.721129293062529 191.2409774675121
-47.298900024037174 233.33840283964585 -5955.161651861295
9.98337197465601 -1.9279527145193305 18.088563312413218
-261.2880468346351 119.25803495745367 -2493.1775870788542
9.578772802000492 -3.3341704392924862 31.397072023040486
9.236569069372157 -1.8113297229875576 17.473444095979904
-262.15800823276675 134.55061849420557 -2649.8531823731446
10.801127878982872 -2.1186460907541567 32.9126585326146
-259.77208067831083 154.84231130839692 -2882.1943661080013
8.436348300438674 -1.672773163202447 16.703133145011595
7.932924320714533 -1.7721412516539279 18.42993124996077
5.26228512282227 -3.0041017340528415 51.43189533540649
-330.7540651891497 340.9987483231308 -5718.118442439367
3.5408503734458616 -3.888585683590041 38.241158779707796
-36.25930061050087 38.36882291922484 -1152.5342322887561
7.510226851365998 -3.2005539879691796 84.54612581362343
9.603249897948771 -13.61718618692687 90.93411371278098
-47.87201213864102 28.421407358412967 -1037.4659210776733
-1.9246561887254776 -0.8685167873471674 7.857049405287052
-126.24693183594259 176.12449530326097 -3673.570583590984
-67.45008933640173 9.431580385870843 -968.855299105719
-10.885600701764814 -0.8431421532868013 -424.44219140574063
-2.00896930361612 -0.9017045102370028 7.801513264364792
6.115861259431134 -4.711454030840882 57.8912562887747
8.471550428446534 -3.748293683929042 28.953616393060592
2.057194573184554 1.1987314009765706 10.18812505251166
30.138260269962345 -11.394569775436933 268.74084192904235
2.609562823832051 0.7253026351119598 8.483381536111754
8.759329254577574 -0.5256334857584698 56.37311677233106
-77.71402855367143 32.646285434574025 -1219.166487563815
-140.34771308296288 77.16125546883617 -1889.1183874451153
9.886747755765384 -1.8744586196951598 17.953074454470954
-97.31165773644936 19.35392972989458 -1196.2761653176406
10.150034544213014 -4.1229606226326965 33.8162932181945
-25.765258406714597 14.31382450347297 -723.7962332238244
-299.62854583814146 309.115998603663 -5287.275507029302
-23.021325653146228 117.05580330518413 -3127.550481769699
3.064613277090161 -3.0786352384296176 32.3400450688918
10.19931232374044 -3.0805635948162475 33.61957521169561
3.115970585943868 -0.10429071307747623 36.583632260860206
10.703595787947334 -0.1485904505939969 61.876803467743045
7.617023121855024 -1.4791035493703504 18.368764364744063
7.15244455458931 -1.3551133389029735 16.929865385245733
-130.16305278026795 125.6755095677191 -2622.4373396057763
8.213777127063116 0.2409402618137539 55.342014534093806
9.370700388099186 -2.185056320047288 17.46971353420765
-38.23796234132504 40.42191180307298 -1193.212553433197
9.52410012768981 -2.3089666351321774 18.382887470590468
-179.53631146177287 52.978985150710734 -1752.2957189347117
-124.67060361354696 168.17161891212461 -3507.7947103288184
3.6175765157269892 -3.164519238159704 34.38538403332584
7.0927876564090075 -0.3069798817849022 51.46513532586505
4.976409512647981 -3.8973512076116545 48.081589038874526
9.671954573148344 -0.37737106192762127 14.983781026471169
5.443388600338952 0.6689168712002179 41.9158007125782
348.92309972030785 -517.8298498947659 4044.14347693329
2.810075025672215 0.4086059243759053 8.351687638760069
2.595090069429292 0.3226168605415856 8.535991650477783
10.035323537749376 -2.178407609367888 19.262606808699584
9.292041231623461 -2.348549243054991 20.99469953308199
5.8262241740616325 0.6274961426796969 43.75107609111619
6.636276237002358 0.0984028528373963 45.558432880510075
-14.908054880325109 -1.3350213269169249 -474.9011105560309
1250.1234046911857 -1351.1866458216393 12635.229186796623
9.081695193902148 -1.6176315455043206 16.47337820845637
3543.9183855041097 -3528.2920987878306 35820.57139934009
4.893560136339681 -4.304242052591996 44.8936484809865
10.119813420957831 -1.8050058163527585 19.280329981364204
9.463807949633008 -2.733871482395853 29.666995235191724
-101.85940073269501 22.70799636775247 -1241.4504606038795
-16.25892993893358 11.003856930687599 -598.7411561087722
-1219.4920473864631 974.7038169086262 -11356.46141571616
8.529848895886934 -1.3726799646031471 16.900448673438156
-889.3263670275674 760.8776596551038 -9829.18997902681
7.390385163737511 -1.3177822331712779 17.82060767308918
-183.65968155922783 55.07777133015235 -1780.3105662760202
-37.90818939518123 33.09062072120065 -1065.5994618631219
-82.52609848553477 51.30010737699441 -1455.639482349239
9.282367344929371 -0.6820819898779851 17.52479395298143
89.14276709931104 -220.0559135732064 3902.8437044872057
-318.7186688543891 173.89517129228537 -3089.64718736993
-80.00571461088413 65.4830168330491 -1658.5938973804155
-114.36585652703825 88.1497076969387 -2017.6052194524389
1.7304324833571731 -1.113911729500823 26.31231259306842
3.8948089866594446 -1.5404271441979487 36.138604824299975
5.080110376468147 -5.251665032257813 60.86127659513499
-78.27532801683267 -6.760563804200191 -954.0352377042237
-44.196222210235305 -8.19371431486939 -725.2911773060397
-1.8624590286192793 -1.5166680665802226 15.631359966060455
0.6032564523572528 4.638655199863793 -251.83707168184992
-53.6678437124722 17.347844553480897 -946.3128311303674
8.044341708036642 -1.5531107042615804 17.413772772290105
-199.99570217704505 -21.572363231096595 -1460.6015625219802
5.983191195527331 -0.23843302813500697 39.24884240697689
-12.370226468662864 5.221502500701603 -485.4912488663028
-85.97013516531683 17.799490846772272 -1129.1379299289913
7.388059733185698 -1.8187010649375592 24.231774706329045
-158.82243124213122 -25.550521219616094 1206.5859839396269
6.974046052995912 -5.147068614600755 70.64898070741363
-178.77748371427867 54.511289214483 -1761.8373336892732
-83.25985121811549 53.802275211501936 -1490.8311697249612
-14.124482700697774 100.01003836699893 -2765.4237918121753
-588.8177313378428 712.6794951368003 -11602.543457423419
7.890455049874393 -1.3187727234490234 21.834366943737784
9.455113078703164 -0.8764499147551621 15.501230530151512
11.078147938120843 -1.077064460168564 19.571440848120066
-229.80254285517793 136.5187046393582 -2664.130770499381
-103.28798207181946 134.41271097869105 -2905.9300728102226
-158.77895761869954 103.24748638391021 -2234.767885627265
15.041733814815686 -6.608646997867878 136.72806386414433
-55.699588771165615 -19.478138373291838 -783.9023304522925
-78.13126259445662 -4.374875532824336 -962.166481013947
-1337.2413973296973 1087.90331104633 -12551.75887366729
-2.2169082814204657 -0.6959160948804426 19.791101155635825
4.025226768383478 2.1023600415254697 51.706871331032175
-12.861918214304316 -1.0431510103807697 48.794485701665415
-4775.52667600177 5148.903672766375 -67226.98366339227
2150.8224200048544 -2288.1664624549253 24935.863610319135
4.375812105028334 0.8193448496447028 35.7041221997428
-38.17350437558231 -6.559174592656189 -683.2407898650085
10.50242025152863 -1.1137643343110284 18.02611218535621
2.6901854701893875 -3.8480185126549995 39.91644994655685
-1.6808547198646764 -0.9274710195486647 13.977644558467064
-0.1636967471038012 -0.0794773803156631 5.972110273313441
-4.633148630384488 -18.78069254201429 456.0582066170197
-11.629443901361801 0.37790900256241855 46.779878573925856
2.277529819251512 1.258747175480609 23.850929561841333
-1.3755941862160688 -2.1666581747284352 29.31450800140051
1.9436167274513734 0.2529767840672709 24.07746546713022
8.204041991797487 -2.5481492946566426 26.12612041815687
5.026382707233759 -4.574962596855446 46.69737953990606
7.342135820834802 -2.3800141041368925 24.621742713229658
4.27503627056138 -3.0139555261624293 68.50895405444679
6.34747467902657 -11.791017683887699 56.38191047647095
4.34534275299021 -4.2270790972240055 43.80820757630188
6.357367630696143 -6.124622897890544 60.13329211685205
5.809213678645106 -5.362415215331309 56.523584401696894
7.540692030341564 -2.234607803700627 23.807542018641843
8.975296065013303 -2.9568319426624745 24.158745477296815
6.946813143621387 -1.4706433919964979 15.894647465101187
2.2009033595641454 0.9601100425994027 9.475003124512027
5.509633947417227 -5.1521515866904695 55.126224510729465
-28.350137026122198 -3.924875700129989 213.9733355539995
-0.7225302734259953 -0.2986984465189173 30.64240164669632
5.575664774894424 -0.36458459020250555 34.21937560157976
5.134948993991948 -0.35308714085983584 32.9404630088241
5.73623274504587 -10.412744341412527 52.999707808569866
9.148440240446401 -2.6057349404327512 14.042662605651234
2.1930132782735705 0.9181524161093395 9.535854886233022
-43.843914879189356 -5.630775156727434 348.5052773801177
2.1891429549604444 1.0021384521348133 9.754573201446277
3.525172169622943 -6.429523725278498 34.22017653043466
5.938918675105428 -0.7589342606839529 40.73381869443968
8.558748121000539 -3.6683222631106465 27.684023197834332
1.155391253153762 -1.0343756578011207 46.777372266510895
3.564458962682877 -3.2531072546654234 39.34933906601668
7.332690647575914 -12.99320614199073 69.92758330103021
2.2674162298329548 0.9357931912277442 7.320677378696137
7.976297046478496 -1.9944946679927003 24.51814966072519
-248.5199510507756 137.7170111326365 -5217.151876393575
0.6924957079029987 -0.7108473511031483 26.048814914868505
9.138112396755886 -1.627437675801576 15.961082582850509
3.5741990279159186 -1.6994544350648304 57.563302247243726
4.377650702105671 -2.405888113984504 70.13039075315358
9.012085331361854 -1.9724709506626703 25.910202458203813
0.2292434876804124 -0.5435429891435806 16.497486204718587
3.819790049638887 -1.122271135202451 33.27357790475298
1.8816415051279844 -1.4518791993322973 43.016961796126665
5.5022599504867085 -2.875934314494472 77.61527184956454
4.1296157432949485 -2.604209909319252 67.70777430365006
8.667393483149947 -1.8340041127935895 25.436543754553995
7.39660456846991 -0.6492851684290213 15.497068792398126
3.8907522751007604 -1.416453666110004 33.85913538205469
4.845002508550868 -3.0975298291641185 72.70155574559197
7.5801259182232235 -2.4179468922858782 14.924544880787668
4.355931948615562 -3.307809988689921 46.39754212529174
2.1162696924644355 0.7295272371243184 9.389046645226838
0.38641981938357844 -1.1674363881132261 24.360986000800796
4.071492244336729 -3.0652232363732437 44.73149386251253
4.59575797007312 -5.098543627682767 46.23261539674822
8.384602554324067 -1.6606244551772333 25.11835563882371
6.107026459018838 -2.7396315492222896 52.54205098788742
4.702209278730342 -6.314691431240396 42.97157534351739
0.49308674304652944 -1.4734973848434072 28.335780051473805
2.262611028455255 0.9832332382986153 7.164241642670081
5.7158116789972375 -2.800697659214572 51.029526313838936
4.6898120168711745 -3.040830446808526 47.178216528499746
9.158721689915161 -3.090265801599528 27.34102801852365
2.203286603869068 1.0853282322703022 9.619831598848815
7.5366231956588505 -2.1937000116101233 15.06852647090378
8.170281434524702 -2.7861129244990104 25.9200671731292
3.4651491880194984 -1.9956286748830787 32.50315559798391
8.77389480141125 -4.555024328125602 30.40077458220589
7.006936555822681 -6.585326434437434 62.91297868156614
8.677824266701979 -1.9865359725314213 24.43528016891842
4.708331241966931 -4.663577282402548 51.46216602862224
5.392251449441317 0.5154985314104792 25.49749538625244
6.315065121555658 -11.733795894520085 78.17196268935828
-26.331000547452508 -0.3285905321005728 77.55736136259954
9.751187072927491 -1.0902926479941835 16.854511883160274
5.5484540735329295 -3.929516781097533 52.042375598408256
4.49669681915287 -6.677554773480034 49.911309648073825
5.529220216686829 -10.124740257060719 60.97627081476405
1.239718108486286 -0.9195759543727757 33.964208266809976
5.3906030274613945 -4.439583284902981 85.94829037798306
6.835236632962451 -1.4575735044515599 15.861511919201757
4.621050027439197 -2.102833293003129 43.56922838886672
3.0498388682952755 -1.3359926971107936 51.11795928293505
2.4476314357529763 0.11890787638920164 6.9425460391637115
8.200080187022172 -2.196288281126484 25.27846243198833
4.663189642843037 -8.503174458749589 44.52897987232868
8.969282247453222 -1.9075307456750117 26.288134517304837
-4.911953194686116 3.6191047803938763 -86.54500188774313
9.047948198443596 -1.8304499121966 26.388916936233706
4.88829380657707 -3.051263484088331 73.04109520940845
5.4853715314364635 -1.9679492195490684 47.19796722458918
1.8912193619156739 0.2186434104967966 29.634631102322476
8.100268114291532 -2.020541633878678 25.106266741155515
4.851871175286335 -2.688344856244408 44.98886893958766
2.8024800242654875 -1.53484008199879 34.73569498262429
8.262659307720558 -2.080559382799975 25.342927374532405
4.022432774476506 -2.572521382189238 66.88051135929456
1.98793473514635 -1.160925805602522 41.61972726035714
2.780358589225523 -1.6632788324531962 50.81169250209552
2.292298841435999 0.9444284729906118 7.439902061488384
4.2203176170487176 -2.085257782969363 41.79135501796968
2.26103373860364 1.0003098942704898 7.444784988676033
2.5702680602632215 0.7343247886113795 7.24008893586835
4.137126018945612 -2.3505284289455664 41.64415442944626
4.817656650817791 -0.3029793820231581 29.709342341711025
8.586076735084768 -4.511479669635481 29.560405544749795
7.668568786409696 -2.643764554144851 24.413260317966177
7.017837422575254 -2.423351792154889 14.609215675419795
3.2420142981865765 -3.208628488445876 35.77568384362429
3.736624408208409 -2.6044270959798355 40.31321458727668
2.244021391567271 -1.7424879934281488 51.91988685215784
5.67517696166131 -5.452380499422026 53.91881919770522
7.971364161262447 -2.5637448729949015 26.521852636822455
0.46104944634937595 -0.9102807779028943 28.28788377173775
5.4047406331834935 -0.8354927948254769 36.42682080087052
2.4578892417402574 0.6486398590820401 6.9447334089679975
4.013573520264587 -3.0924227574636687 42.45762431600989
6.278635999894517 -2.8085562392587757 78.1561743442168
3.1758927989608483 -2.1469138809956427 37.0039574617653
1.962897732641522 -1.3845315573928914 51.316370201136515
5.411454234671738 -7.498478703436031 50.68314532822517
1.870252554359524 -5.227351710443681 99.15987101414701
5.64971899376112 -7.59313370196268 51.310544830011686
1.9997958165545564 0.24720916939756005 24.577530786518466
2.767308763302655 -3.05369586343825 28.583910896465046
3.4271767650492198 -2.291823625073864 38.40762679792933
5.745917909465009 -7.892822514386429 52.15518689503756
8.952887795979422 -8.542017173719303 104.2944039867419
4.472149392872794 -4.079775265917196 41.56934761615416
5.148075553387465 -3.630806787632926 47.62887786244508
4.693438652658019 -9.040995760185066 53.82652812975512
8.385019977626255 -1.6318032063098113 15.26766160990547
8.876772937517986 -1.6868413991274058 25.693610860378843
3.234814597817757 -2.169182049421608 56.84734853137338
2.21092111632337 0.7745319864422182 9.738050009513351
7.419794762734566 -13.68820292611315 76.11541349060496
2.35131165915298 0.2697882664425568 6.793946038214655
4.218047995217937 -2.3315507333821373 39.72493320356365
4.502378023874626 -2.317843433179317 40.84764505495001
9.735470091859526 -0.9045737335405155 16.24529136885535
4.774626957890796 -2.125624471654624 41.79363224105736
5.06614410040114 0.28485768008090856 33.14408621883817
0.32568825417522135 -1.0581672175518195 22.569196233391413
3.994015648606202 -1.8012689554046502 38.384397450185
4.376886813635478 -3.1527603493581955 71.46545451127585
-2.0807527914088575 -0.7529660177816531 81.31600273740462
6.961119794033172 -2.3144950922430354 16.866461831692728
4.142684563224033 -2.566548283493438 39.74482709872534
4.461756522140776 -1.4242278534875272 40.504740046550005
7.261961940040359 -1.6033637441784345 16.673902336608766
-2.0389344213100102 -0.9532339969577543 7.046001894599721
2.776170743605069 -1.2494125448574211 47.43594252618313
2.845049685036599 -1.053672855790484 47.04628843497144
0.9776653140769588 -0.8827334247805596 32.0170832852238
4.8861110257739435 -6.662518991875607 44.91253309092864
2.2989751781591683 0.9061845675482734 7.329326077739074
0.7196618705240456 -0.4644943475172184 24.177798443724154
4.477623403045561 -4.355883971938128 45.27615721453106
1.7320830092386825 -1.4719388956543853 47.03714162432382
3.49494960444654 -2.1047306611234227 63.44906869809475
0.19053405991729716 -0.4640107137322565 14.048506282042739
10.539905848567312 -10.232294692925953 114.5595166508731
4.748635615688671 -2.731271652107862 42.26700539747683
8.201270881420337 -2.3582666898393696 24.755146708553177
8.378311156159516 -2.7724207651717707 26.943390499629707
8.545475045573815 -3.0637877380628242 27.13216244825671
1.6700189901064602 0.10794566299275496 20.788553312636147
8.921428220656669 -2.587260697175896 16.123769672870463
8.870505796615923 -2.7649401340417885 16.03995915276012
7.211032831116478 -2.1744525758132816 23.33800945185482
4.5523384585726046 -4.793125670168319 46.903865029434485
5.884514113087299 -4.522075389324871 64.67784961230329
5.1361785992668505 -4.447512148021199 47.16491434115506
-2.0834421014719893 -1.5627418893023644 17.87921315954114
4.501963849096608 -3.2310783988148053 42.28269813457806
8.330377810912616 -2.572258376448171 24.98432849122602
7.08482081758121 -1.8866130363671925 23.090685656731527
3.148993126746706 -1.6448814541339347 32.393961857096194
8.78934111045836 -1.6962115242657319 25.127808952440432
3.951907296441618 -2.003827153601032 36.10856112872137
2.2599454753964525 0.787180652181777 7.33186651528286
2.4181967722931104 0.6582799353049102 6.890690935007828
4.013059417208989 -2.919963078363007 66.50479156131335
3.42371545569948 -2.710772549013659 61.73763207452756
4.256839512104925 -1.892768533438407 37.24818464490995
8.248600505571687 -1.6715187931489592 15.234770003798962
8.704581918774268 -1.7256610761035531 15.35591859915734
7.466292774880436 -1.9644143134545256 14.336574778001385
6.293775357067292 -2.1114477425503244 15.217560130475801
0.1645187754442694 -0.4320110542540299 12.689843788087002
8.229153478370206 -1.5885912319723183 24.37532249002817
4.212115472339415 -2.440789277935926 37.60650366230998
2.488444043773842 -1.6197485373366993 29.247156186389656
0.9934716888690418 -0.880700150470785 28.27718676308243
3.56966407157065 -2.0566430258219817 64.31985862327367
7.990645904549496 -4.7395180901640925 99.74360361865953
-25.041258777865004 -2.147538781328822 81.12969996214744
8.273922066155537 -1.9717568271500032 26.445148290737862
-1.8504708132607262 -0.86672262401646 7.157878192896661
1.103643648387207 -1.0347397709465374 45.67594333980087
-16.405101882250612 -0.9645574249969586 52.6662163253726
3.1759565892844024 -3.173299219610233 35.93259660775192
1.791832965900583 -1.0105833960356687 56.900155922250775
7.145093174468127 -0.8516856009290383 48.105872654603004
8.095006923577522 -1.4304620775712686 15.271122487261641
7.951956894618263 -2.285156320472485 24.062467217363732
8.899432944432201 -1.7422603564118226 15.21791044431769
-0.7186248607428795 -0.2974056286893044 28.64814578571299
4.006259115116344 -3.992270562101767 40.75406927040726
2.15315309558821 -2.186397212795123 49.794559982501845
8.828483087176599 -1.5458178017824582 14.780092284223931
2.331413099476029 0.8668645263371475 9.981006292414266
3.919033346823317 -2.861812504175804 37.34245250648645
13.785734033533693 -15.0623197742499 137.98255065145378
7.980367895491484 -2.4591192378069047 24.142244985230104
2.189825282659773 0.7808481335347379 9.674178709673301
2.291789588709679 0.3535359030941925 6.750180246767098
0.1528756457196872 -0.4249452334459669 11.932043878856073
5.267444711182944 -3.176219681221065 75.65273095173927
0.29841256896397494 -0.9557403114927656 21.36116342912011
3.051450120019993 -1.4187399463509807 29.880636636014067
8.323457254633668 -1.6349584340865515 24.63702156088738
9.165739837468958 -2.2269689747887313 28.16701392724831
7.977771405732309 -1.6240909282744027 14.801606608646651
8.502248229778255 -1.9306783181804708 24.941128759884506
8.875133301941016 -1.9574559097036432 15.53895204375973
6.959131698068114 -1.2258090963241972 15.376358524466424
0.12808286984988376 -0.6192553345061691 15.73883225391845
9.648537220889855 -4.964228355167621 33.2095962535025
2.252163481250848 -1.741200264103588 52.02549283837942
-20.74292605356822 -1.8933137414693177 67.1529755792029
4.194561085863773 -2.3011965753434476 68.92376057864787
3.5779671077213853 -1.100556977711424 31.504118570675182
3.9136767817196008 -3.825571279458232 37.849667560466116
7.229393399667654 -1.70565907490945 16.21216782544992
8.467367109210496 -2.831077429303967 27.232070996109957
13.341215765470118 -14.196092175232575 134.23302026349143
2.6813953241701207 -1.6062928301685182 57.93242591708094
1.43664137997044 -1.9868704506077064 41.67666073733958
-53.071297563598804 -2.316598154937126 171.86486263590206
3.507763115470995 0.4280771747386391 26.362770441896707
-21.221335074549664 -1.3333473525387456 68.04767600082907
4.352321948436946 -1.9751954222660815 71.46480924112758
2.272045879393937 -1.7154303907413504 26.771048577065446
14.928983915266132 -13.053876241495685 134.51813783029567
3.6031248467013413 -5.104121945179532 34.062738604724665
17.36040682527557 -18.79226825802845 156.1224283826416
1.2919185747243223 -1.3716663410646746 40.888493540135975
10.806700533181834 -7.731680800502675 109.08808275993277
8.477285438030977 -4.22117122754625 30.13927932093168
3.5607097347664847 -1.9533058346320622 30.426640532113574
8.520643043827413 -3.890982982463706 28.69726222999698
1.7873006197475318 -0.4050009678604057 22.72951355720956
0.36806397376374417 -0.857934831988562 25.009458946689186
8.192679497813863 -1.918097386787665 15.245092833497893
6.827112319595004 -1.8686486420313053 15.223936027546578
3.7447926812351446 -3.826224048292591 65.91222645350959
2.0177459880362862 -1.141055270738888 56.12157640386588
-6.966049634444387 -1.8377650863515742 53.60794134423964
2.8008463268054915 -2.688889298876848 56.35220393820334
7.030373288200255 -1.2347574682342028 15.436633237551488
13.459033667373419 -14.47767690476927 135.40205278561268
8.902126786167775 -1.8568009278451318 15.332185815111563
13.478602393799122 -13.099058415619352 131.0748521077599
0.12299113295278545 -0.607978616110838 16.10699301299651
8.94107913802691 -4.979663635178708 97.26363727917776
1.323546844261653 -1.4032862976701832 41.141133940408416
2.5829668411178868 -0.8023652309556344 26.009556978176118
15.389670247126809 -13.101267866193451 135.81443968195416
-33.66329056043824 -2.9375438261641746 114.11590844614562
4.7559729775298205 -2.0152536901746045 74.50674294164635
6.942117694160087 -1.3258539727657115 15.358385485790885
7.673717032813912 -3.807874610036204 27.45401967570456
11.559439923464385 -8.117717108860075 112.68102005598487
17.180897579797943 -18.885155082366197 156.13838620488926
3.515743298783633 0.5265481600833195 22.576086622159156
3.025137836151001 0.3449901916780804 22.776179300020928
4.061763969137328 -5.011991007664765 39.9415398364426
2.3158063209054944 0.16188596022506208 27.890409652127698
13.59206175636928 -10.223167506919612 123.9153938574994
8.527163376806545 -2.4796769428600403 25.61143584665891
13.957540158995378 -20.036880392015217 156.5955013985678
5.938443016414319 -0.6658973264857251 24.32172645554808
-5.2248126109966755 -1.5942221160164922 46.49612703709626
1.7059598915131295 -0.41806121586456585 18.9386748477429
9.56640375816956 -3.9730816845726156 32.62615574947931
8.273568148333695 -1.7177627504229942 14.726788262524485
0.10752492500195064 -0.6012184769682227 16.78870590574027
2.660935365387725 -2.1765486772606164 55.10689122651511
1.4698129896925285 -1.009391039301555 53.102679972717105
9.472700749017122 -1.7881222477691767 16.28882615726868
13.89614218345846 -5.223886695271697 119.95919446076543
0.2254494642146112 -0.6694333827588164 16.079411183831485
8.15675181901963 -1.549711154036993 15.234557438096706
2.2873748915135006 -1.2710069857564994 22.993016953081764
0.8325740906261166 -1.998146991909479 35.84600135605637
8.02501312009109 -2.466127709183083 25.480630105845915
11.734400896905644 -8.263321624164393 113.60292492287202
4.2549415689240755 0.07417683776517034 28.582190046226202
2.052609355830277 -0.09180226002403613 23.41165673371266
4.655523321603459 -0.7436506400103597 31.935323353438147
13.495610508651277 -19.7326385579663 155.06930666991127
1.6424967021302879 -1.441650949661555 45.98203237949788
3.65004597711198 -2.2740544592742857 64.3232914909087
2.638471244129461 -2.6016362624732654 27.283771868801985
2.1293321619298773 0.40674860426742876 16.957646285213155
3.4883524347133688 -0.7396102725339078 43.350449785216014
-2.3531634375969914 -1.9500152207147312 18.772114210534372
-11.790079930513853 -2.1536966798697668 41.2632157919139
-11.816403697386162 -1.1488800071221696 41.34712698380463
6.815994020402651 -1.2716922866059328 14.718808221834564
8.573907389642473 -3.772173699175626 31.022556072646243
9.516941151382909 -8.068345758671136 104.94138014962138
-5.881120558688448 -4.890037728537974 48.35993291376715
-1.9881975770134022 -1.7712865828068503 15.044845414496688
10.14383539524629 -3.1751362013338555 32.14985952448791
10.383053254791934 3.4897309319565784 144.8327871740994
9.476169084297107 -1.5452948626327034 16.552290933742277
3.856449373265822 0.342731476084484 28.925098444663796
4.851452435776418 -0.22215713950131763 30.722495915049375
10.399146027085049 -2.2724079541782762 107.79387559630104
8.50088279821361 -1.9344117621754804 24.549262844328176
1.9123208541142969 -0.624719440519339 19.706696381995467
11.55917771459199 -8.65249301924729 113.73516702235887
3.536408403303068 -2.289083485634301 63.26640055278934
0.08421639340572956 -0.5579864221727562 15.23436977055568
23.34735356140637 6.5137490233965964 -193.1726491290153
7.994683605124765 -1.5341312104894105 23.792459563058674
10.364803508879998 -1.7320204007925395 26.81570970244986
8.615869529499612 -0.7601495003452086 16.857154903295996
5.469474570227795 -3.5453418960880776 76.94293474166352
3.1655211222492343 -3.7841216273777016 62.116922960182784
1.5146831493975714 -1.957536630297839 42.511812471057695
1.1121326786742987 0.029961574684532075 14.659713286888767
1.754048729127801 -0.165159230970875 19.989948082885796
13.205456746642383 -10.651491995420555 123.68145058891366
0.4949438350572859 -0.2730599960116584 11.62879414693333
-25.679123372995804 -1.7790856165208886 81.71885665128747
6.326773889583928 -6.739642608883462 88.69659077040744
-1.95499459883608 -0.8052074968422949 15.925940413529876
0.3874429090281818 1.145847955503702 -44.906444448980054
0.026802535796644267 0.1063357715287237 -2.5765019940134124
1.0097963635805807 0.1010015653030058 18.523532818824016
9.71955888883037 -10.219950429501761 112.19404074704363
8.175799844298679 -11.537537647367227 114.09013091780582
3.842621868450904 5.972166362217127 -77.11582725952435
2.169195298834925 1.1764958724701953 21.220017895620607
1.5744891692092855 0.5341888866416484 -53.42510932828113
-1.5219073816426112 -1.5338187729504211 17.965516616748864
-3.2182171259465795 -3.114436096011297 32.94040736288099
5.154025996221071 -3.866987207469211 54.36967451071795
8.008499587815479 -2.0238563648188457 24.82845861516292
-7.6854820726544935 -0.40684344679957646 56.632308785738005
5.250505909432087 -9.60012886688534 49.739383524459605
8.301183666399256 -2.1646988016677917 25.290197201628985
6.8555769574230006 -1.3282289158067206 15.216521092144877
9.023721660881645 -1.4514189537184998 14.66308576700911
-111255839.95884633 62032263.82176903 -994379263.0137191
2.0408632355173424 0.7662868102434328 8.085549659704494
8.223541226169397 -2.3299951180710536 25.2602079590231
3.867750369468064 -2.154313067189198 36.29927045803044
7.8414902353062415 -2.3301207657853125 24.4354398925266
6.601221532097922 -6.404088712051184 65.54981214481765
8.567945447029496 -2.372783383925582 24.691268750111295
-80987231.9015249 66295675.986314625 -1298160383.0056984
7.03637119445732 -1.3087621591063239 23.448705502286778
8.056153270425419 -7.541956635993908 71.95536787002594
2.05316181887079 0.9500771959999575 8.125493354813383
5.452039203388014 -2.406134820324879 46.70406705869482
2.0508670400708002 0.9581505259620888 7.908839530961956
8.200518575891033 -2.7308263406496445 25.096860714672907
8.302108723458899 -3.9038998817333668 79.95194227268429
2.0221042224573007 1.0113200147275672 8.124346561453109
7.338152380585441 -7.035756324250177 69.00716382943267
4394534.9956750665 -13489012.047971806 279620352.9981312
-61750711.9202794 42032091.96397624 -871303807.0061228
5.91453595613293 -0.3144631115118058 36.919395275784986
9.17790505119303 -3.0328766897261508 26.48908598034481
8.052612271544039 -2.429313384462615 24.765106030251463
9.211504893726634 -3.6681177326419516 82.08947736816216
-52359963.91057607 36926767.9891771 -839288191.0049504
6360914418.965975 -6571665417.074132 149363785729.15665
-176072079.64517227 170576528.19271746 -3876940287.0068045
8.238017049056047 -1.7135341964551147 14.578466244675177
2.0668284482554804 1.0741172036485827 8.070965118452845
2.1342834998148703 0.3783317374461838 25.529697246469645
